ncols        147
nrows        31
xllcorner    292786.250000000000
yllcorner    6177386.250000000000
dx           5.013227513228
dy           5.016431924883
NODATA_value  -9999
50.0579986572265625 49.964900970458984375 49.86930084228515625 49.75370025634765625 49.619800567626953125 49.50370025634765625 49.430500030517578125 49.188701629638671875 48.763500213623046875 47.812801361083984375 46.98130035400390625 46.61090087890625 46.74539947509765625 46.475299835205078125 44.9795989990234375 45.1949005126953125 46.095500946044921875 46.464599609375 45.872501373291015625 46.7218017578125 47.302700042724609375 47.188899993896484375 46.974201202392578125 46.987201690673828125 47.240200042724609375 47.3657989501953125 47.3498992919921875 47.562801361083984375 47.6436004638671875 47.528598785400390625 49.462398529052734375 48.152500152587890625 47.786899566650390625 47.8329010009765625 47.884799957275390625 47.932598114013671875 47.97859954833984375 48.03279876708984375 48.07109832763671875 48.098300933837890625 48.11479949951171875 48.131900787353515625 48.154300689697265625 48.1808013916015625 48.1920013427734375 48.176700592041015625 48.131900787353515625 48.06349945068359375 48.0045013427734375 47.940799713134765625 47.884799957275390625 47.84059906005859375 47.812801361083984375 47.815799713134765625 47.848201751708984375 47.8907012939453125 47.93489837646484375 47.989200592041015625 48.045200347900390625 48.121898651123046875 48.20439910888671875 48.31240081787109375 48.427898406982421875 48.55950164794921875 48.66680145263671875 48.757598876953125 48.820098876953125 48.868499755859375 48.899799346923828125 48.906200408935546875 48.8927001953125 48.86199951171875 48.833099365234375 48.80300140380859375 48.770599365234375 48.728099822998046875 48.676799774169921875 48.604900360107421875 48.71160125732421875 49.12860107421875 48.917400360107421875 48.500499725341796875 48.391399383544921875 48.341800689697265625 48.298801422119140625 48.2610015869140625 48.2321014404296875 48.202098846435546875 48.174900054931640625 48.143100738525390625 48.1136016845703125 48.082401275634765625 48.054599761962890625 48.03279876708984375 48.02629852294921875 48.03929901123046875 48.064098358154296875 48.096500396728515625 48.125400543212890625 48.15489959716796875 48.184398651123046875 48.219799041748046875 48.254001617431640625 48.295299530029296875 48.337100982666015625 48.39369964599609375 48.45510101318359375 48.53710174560546875 48.62139892578125 48.721099853515625 48.811901092529296875 48.90679931640625 48.999401092529296875 49.092601776123046875 49.17929840087890625 49.27719879150390625 49.36090087890625 49.44699859619140625 49.51959991455078125 49.593898773193359375 49.657001495361328125 49.718898773193359375 49.769100189208984375 49.82270050048828125 49.87760162353515625 49.95130157470703125 50.02970123291015625 50.134700775146484375 50.2490997314453125 50.397701263427734375 50.5493011474609375 50.737400054931640625 50.927898406982421875 51.170299530029296875 51.406200408935546875 51.67279815673828125 51.903400421142578125 52.151699066162109375 52.373401641845703125 52.640598297119140625 52.8917999267578125 53.177799224853515625 53.433200836181640625 53.7156982421875 53.965801239013671875 54.222900390625 54.379199981689453125
50.2425994873046875 50.1558990478515625 50.0532989501953125 49.947200775146484375 49.80860137939453125 49.69770050048828125 49.584499359130859375 49.51309967041015625 49.262500762939453125 49.132701873779296875 48.915699005126953125 48.282299041748046875 48.00749969482421875 47.4300994873046875 45.90380096435546875 46.05120086669921875 47.009601593017578125 47.852901458740234375 47.72969818115234375 47.82109832763671875 47.888301849365234375 47.772098541259765625 47.692501068115234375 47.6305999755859375 47.742099761962890625 47.701999664306640625 47.686000823974609375 47.7042999267578125 47.744998931884765625 47.800998687744140625 49.47650146484375 48.04759979248046875 48.034000396728515625 48.05879974365234375 48.1118011474609375 48.15959930419921875 48.21450042724609375 48.26689910888671875 48.310001373291015625 48.337100982666015625 48.35720062255859375 48.37490081787109375 48.40380096435546875 48.433300018310546875 48.456298828125 48.452098846435546875 48.416698455810546875 48.366001129150390625 48.321201324462890625 48.282299041748046875 48.25279998779296875 48.23799896240234375 48.23799896240234375 48.27230072021484375 48.338901519775390625 48.402599334716796875 48.478099822998046875 48.54830169677734375 48.62670135498046875 48.707500457763671875 48.79949951171875 48.890300750732421875 48.99530029296875 49.096099853515625 49.184600830078125 49.25009918212890625 49.29779815673828125 49.3291015625 49.347400665283203125 49.345600128173828125 49.325000762939453125 49.294300079345703125 49.25830078125 49.220600128173828125 49.165699005126953125 49.10559844970703125 49.022998809814453125 48.958099365234375 49.109699249267578125 49.22409820556640625 48.905101776123046875 48.670299530029296875 48.618999481201171875 48.565399169921875 48.519901275634765625 48.485698699951171875 48.456298828125 48.43270111083984375 48.40850067138671875 48.38140106201171875 48.351299285888671875 48.321201324462890625 48.29109954833984375 48.268100738525390625 48.25749969482421875 48.26580047607421875 48.28820037841796875 48.31829833984375 48.347698211669921875 48.37599945068359375 48.406101226806640625 48.4385986328125 48.474498748779296875 48.51290130615234375 48.55590057373046875 48.60720062255859375 48.669200897216796875 48.742900848388671875 48.828399658203125 48.921600341796875 49.019500732421875 49.114398956298828125 49.21649932861328125 49.308498382568359375 49.400501251220703125 49.49720001220703125 49.59149932861328125 49.68650054931640625 49.77970123291015625 49.8722991943359375 49.96070098876953125 50.0420989990234375 50.117000579833984375 50.1884002685546875 50.265598297119140625 50.3582000732421875 50.466701507568359375 50.59709930419921875 50.745098114013671875 50.920299530029296875 51.10720062255859375 51.30770111083984375 51.511199951171875 51.73709869384765625 51.96939849853515625 52.212398529052734375 52.443599700927734375 52.669498443603515625 52.881801605224609375 53.1071014404296875 53.342998504638671875 53.600101470947265625 53.851299285888671875 54.109100341796875 54.361499786376953125 54.59799957275390625 54.74420166015625
50.413700103759765625 50.3246002197265625 50.236698150634765625 50.131801605224609375 50.017299652099609375 49.885799407958984375 49.76490020751953125 49.662899017333984375 49.588001251220703125 49.560298919677734375 49.562000274658203125 49.189300537109375 48.804798126220703125 47.32160186767578125 45.875499725341796875 46.838001251220703125 47.66719818115234375 48.28170013427734375 48.346599578857421875 48.213298797607421875 48.115398406982421875 48.0251007080078125 47.97209930419921875 47.924900054931640625 47.8636016845703125 47.8170013427734375 47.814601898193359375 47.849399566650390625 47.89009857177734375 47.987400054931640625 49.515499114990234375 48.256900787353515625 48.249298095703125 48.276401519775390625 48.32360076904296875 48.376598358154296875 48.426799774169921875 48.4833984375 48.52349853515625 48.554698944091796875 48.57659912109375 48.59780120849609375 48.625499725341796875 48.6614990234375 48.69100189208984375 48.69860076904296875 48.675098419189453125 48.636699676513671875 48.612499237060546875 48.593700408935546875 48.590099334716796875 48.601898193359375 48.625499725341796875 48.6885986328125 48.772998809814453125 48.86669921875 48.956401824951171875 49.04840087890625 49.132099151611328125 49.220001220703125 49.301998138427734375 49.383899688720703125 49.463001251220703125 49.542598724365234375 49.605098724365234375 49.65290069580078125 49.68180084228515625 49.70059967041015625 49.706501007080078125 49.696498870849609375 49.67350006103515625 49.638698577880859375 49.601001739501953125 49.552600860595703125 49.486598968505859375 49.412799835205078125 49.32669830322265625 49.29489898681640625 49.470001220703125 49.34619903564453125 49.04959869384765625 48.875 48.818401336669921875 48.7593994140625 48.715198516845703125 48.67919921875 48.654399871826171875 48.632598876953125 48.61370086669921875 48.591899871826171875 48.56710052490234375 48.53710174560546875 48.50820159912109375 48.481601715087890625 48.46810150146484375 48.47280120849609375 48.491100311279296875 48.521099090576171875 48.54940032958984375 48.577701568603515625 48.606098175048828125 48.63909912109375 48.67330169677734375 48.712200164794921875 48.752300262451171875 48.803600311279296875 48.86080169677734375 48.935100555419921875 49.013599395751953125 49.107898712158203125 49.20169830322265625 49.30429840087890625 49.40689849853515625 49.506000518798828125 49.59980010986328125 49.707698822021484375 49.8144989013671875 49.937099456787109375 50.05390167236328125 50.1800994873046875 50.29219818115234375 50.405399322509765625 50.501499176025390625 50.60179901123046875 50.697299957275390625 50.815898895263671875 50.94210052490234375 51.101299285888671875 51.26409912109375 51.461700439453125 51.65570068359375 51.86859893798828125 52.0614013671875 52.279598236083984375 52.488399505615234375 52.726100921630859375 52.940799713134765625 53.16719818115234375 53.362400054931640625 53.57649993896484375 53.782299041748046875 54.027099609375 54.25949859619140625 54.518901824951171875 54.75839996337890625 54.99430084228515625 55.1222991943359375
50.576999664306640625 50.500400543212890625 50.411899566650390625 50.3246002197265625 50.214900970458984375 50.100498199462890625 49.9730987548828125 49.8722991943359375 49.757801055908203125 49.674701690673828125 49.654598236083984375 49.494800567626953125 48.38249969482421875 46.631000518798828125 46.983001708984375 47.9308013916015625 48.766498565673828125 48.677398681640625 48.50170135498046875 48.377201080322265625 48.273998260498046875 48.226299285888671875 48.17729949951171875 48.125400543212890625 48.08589935302734375 48.07759857177734375 48.08119964599609375 48.094699859619140625 48.1295013427734375 48.22389984130859375 49.586200714111328125 48.496898651123046875 48.481601715087890625 48.49990081787109375 48.54470062255859375 48.5906982421875 48.643798828125 48.6968994140625 48.741100311279296875 48.771800994873046875 48.797100067138671875 48.819499969482421875 48.84960174560546875 48.886798858642578125 48.92449951171875 48.939899444580078125 48.929798126220703125 48.9114990234375 48.905101776123046875 48.908000946044921875 48.932201385498046875 48.966999053955078125 49.018299102783203125 49.097301483154296875 49.20349884033203125 49.302600860595703125 49.405200958251953125 49.494800567626953125 49.58029937744140625 49.65579986572265625 49.72840118408203125 49.79090118408203125 49.85160064697265625 49.90470123291015625 49.94770050048828125 49.976100921630859375 49.993801116943359375 50.00080108642578125 49.996700286865234375 49.98020172119140625 49.95130157470703125 49.918300628662109375 49.87870025634765625 49.828601837158203125 49.75080108642578125 49.674098968505859375 49.594501495361328125 49.560901641845703125 49.584499359130859375 49.472400665283203125 49.216999053955078125 49.070201873779296875 49.008899688720703125 48.951099395751953125 48.902698516845703125 48.869098663330078125 48.84310150146484375 48.823699951171875 48.808300018310546875 48.793598175048828125 48.776500701904296875 48.75170135498046875 48.723400115966796875 48.6968994140625 48.679798126220703125 48.680999755859375 48.696300506591796875 48.72280120849609375 48.75170135498046875 48.778900146484375 48.80780029296875 48.839000701904296875 48.873199462890625 48.910400390625 48.951099395751953125 48.999401092529296875 49.056598663330078125 49.125 49.2041015625 49.291400909423828125 49.38809967041015625 49.48709869384765625 49.59980010986328125 49.70709991455078125 49.818599700927734375 49.94010162353515625 50.073398590087890625 50.223201751708984375 50.3777008056640625 50.534000396728515625 50.682598114013671875 50.821201324462890625 50.945598602294921875 51.06829833984375 51.189800262451171875 51.322498321533203125 51.46810150146484375 51.638599395751953125 51.81549835205078125 52.012500762939453125 52.21649932861328125 52.42710113525390625 52.626399993896484375 52.8292999267578125 53.03279876708984375 53.248600006103515625 53.459201812744140625 53.668498992919921875 53.867298126220703125 54.06719970703125 54.268901824951171875 54.49179840087890625 54.722400665283203125 54.967800140380859375 55.21250152587890625 55.4235992431640625 55.546901702880859375
50.74629974365234375 50.667301177978515625 50.59059906005859375 50.501499176025390625 50.410701751708984375 50.307498931884765625 50.206699371337890625 50.0904998779296875 49.967800140380859375 49.851001739501953125 49.91770172119140625 49.050098419189453125 47.569301605224609375 46.99539947509765625 48.020999908447265625 49.02069854736328125 49.106800079345703125 48.925701141357421875 48.76940155029296875 48.66210174560546875 48.592498779296875 48.529998779296875 48.481601715087890625 48.44210052490234375 48.415599822998046875 48.400798797607421875 48.394901275634765625 48.387798309326171875 48.393199920654296875 48.493999481201171875 49.654598236083984375 48.712200164794921875 48.709300994873046875 48.725200653076171875 48.765300750732421875 48.811298370361328125 48.858501434326171875 48.913299560546875 48.9552001953125 48.990001678466796875 49.016498565673828125 49.041900634765625 49.071399688720703125 49.112701416015625 49.151599884033203125 49.178699493408203125 49.18399810791015625 49.185199737548828125 49.197601318359375 49.22650146484375 49.273101806640625 49.332000732421875 49.39630126953125 49.488300323486328125 49.586200714111328125 49.687099456787109375 49.77790069580078125 49.8639984130859375 49.932399749755859375 49.998500823974609375 50.0514984130859375 50.100498199462890625 50.1399993896484375 50.175998687744140625 50.20130157470703125 50.21900177001953125 50.227901458740234375 50.227901458740234375 50.216098785400390625 50.1912994384765625 50.1623992919921875 50.128200531005859375 50.0915985107421875 50.0391998291015625 49.964900970458984375 49.8899993896484375 49.820400238037109375 49.82740020751953125 49.713001251220703125 49.61100006103515625 49.388698577880859375 49.25659942626953125 49.19580078125 49.13449859619140625 49.08969879150390625 49.051898956298828125 49.02539825439453125 49.006500244140625 48.99530029296875 48.98590087890625 48.975200653076171875 48.958698272705078125 48.936901092529296875 48.910999298095703125 48.8927001953125 48.88909912109375 48.900299072265625 48.925701141357421875 48.95220184326171875 48.981098175048828125 49.007701873779296875 49.04010009765625 49.072601318359375 49.11029815673828125 49.148601531982421875 49.19699859619140625 49.25009918212890625 49.318500518798828125 49.39099884033203125 49.480098724365234375 49.570301055908203125 49.679401397705078125 49.8032989501953125 49.9347991943359375 50.062198638916015625 50.211399078369140625 50.364101409912109375 50.5522003173828125 50.73509979248046875 50.932098388671875 51.101299285888671875 51.268199920654296875 51.409801483154296875 51.554798126220703125 51.688701629638671875 51.841999053955078125 51.99359893798828125 52.178798675537109375 52.3574981689453125 52.5662994384765625 52.7667999267578125 52.9897003173828125 53.18669891357421875 53.394901275634765625 53.58300018310546875 53.79470062255859375 53.989898681640625 54.20220184326171875 54.395099639892578125 54.60449981689453125 54.795501708984375 55.016101837158203125 55.2295989990234375 55.473201751708984375 55.70259857177734375 55.91609954833984375 56.02050018310546875
50.90959930419921875 50.840099334716796875 50.7610015869140625 50.682598114013671875 50.5894012451171875 50.503299713134765625 50.4066009521484375 50.315799713134765625 50.19010162353515625 50.04740142822265625 49.90000152587890625 48.441501617431640625 47.12870025634765625 48.226299285888671875 49.17340087890625 49.616901397705078125 49.41400146484375 49.257701873779296875 49.126800537109375 49.038898468017578125 48.95050048828125 48.883800506591796875 48.823699951171875 48.784801483154296875 48.7510986328125 48.732898712158203125 48.71340179443359375 48.691600799560546875 48.701000213623046875 48.792999267578125 49.677600860595703125 48.93450164794921875 48.930400848388671875 48.954601287841796875 48.994098663330078125 49.033000946044921875 49.079601287841796875 49.12860107421875 49.17279815673828125 49.207000732421875 49.23709869384765625 49.26300048828125 49.295501708984375 49.334400177001953125 49.37979888916015625 49.412799835205078125 49.435298919677734375 49.455898284912109375 49.49069976806640625 49.536701202392578125 49.601001739501953125 49.6652984619140625 49.73960113525390625 49.822101593017578125 49.91120147705078125 49.99430084228515625 50.075099945068359375 50.140598297119140625 50.200199127197265625 50.245601654052734375 50.2863006591796875 50.318698883056640625 50.3488006591796875 50.37239837646484375 50.3917999267578125 50.403598785400390625 50.410099029541015625 50.4048004150390625 50.386501312255859375 50.359401702880859375 50.324001312255859375 50.2910003662109375 50.253200531005859375 50.208400726318359375 50.142398834228515625 50.0756988525390625 50.036800384521484375 49.98490142822265625 49.8751983642578125 49.771999359130859375 49.50659942626953125 49.443500518798828125 49.376300811767578125 49.317901611328125 49.269500732421875 49.23239898681640625 49.20349884033203125 49.18579864501953125 49.17340087890625 49.166900634765625 49.16339874267578125 49.15570068359375 49.1427001953125 49.122699737548828125 49.104400634765625 49.098499298095703125 49.106800079345703125 49.12860107421875 49.155101776123046875 49.182201385498046875 49.20999908447265625 49.240001678466796875 49.273101806640625 49.30899810791015625 49.34799957275390625 49.39279937744140625 49.446498870849609375 49.509601593017578125 49.584499359130859375 49.6699981689453125 49.770801544189453125 49.8881988525390625 50.039798736572265625 50.19010162353515625 50.345798492431640625 50.513301849365234375 50.6938018798828125 50.9031982421875 51.12020111083984375 51.33599853515625 51.530101776123046875 51.70989990234375 51.872699737548828125 52.027801513671875 52.183498382568359375 52.347499847412109375 52.5149993896484375 52.7042999267578125 52.900699615478515625 53.108798980712890625 53.322299957275390625 53.544101715087890625 53.75579833984375 53.964000701904296875 54.163898468017578125 54.369701385498046875 54.572601318359375 54.781398773193359375 54.98780059814453125 55.192501068115234375 55.3871002197265625 55.5904998779296875 55.795200347900390625 56.01689910888671875 56.239299774169921875 56.42800140380859375 56.52410125732421875
51.07830047607421875 51.006999969482421875 50.936798095703125 50.854801177978515625 50.770999908447265625 50.679599761962890625 50.5941009521484375 50.5027008056640625 50.392398834228515625 50.3777008056640625 49.38449859619140625 47.833499908447265625 48.1407012939453125 49.177501678466796875 50.0774993896484375 49.826801300048828125 49.712398529052734375 49.59149932861328125 49.491901397705078125 49.394001007080078125 49.307300567626953125 49.23059844970703125 49.170501708984375 49.12329864501953125 49.08969879150390625 49.064300537109375 49.04010009765625 49.001800537109375 49.02539825439453125 49.691799163818359375 49.152801513671875 49.16510009765625 49.166900634765625 49.191699981689453125 49.22409820556640625 49.26190185546875 49.30139923095703125 49.349700927734375 49.389801025390625 49.42639923095703125 49.456501007080078125 49.48600006103515625 49.5166015625 49.55789947509765625 49.60160064697265625 49.64459991455078125 49.679401397705078125 49.717700958251953125 49.76200103759765625 49.822101593017578125 49.8863983154296875 49.95600128173828125 50.0214996337890625 50.096401214599609375 50.1641998291015625 50.234401702880859375 50.294498443603515625 50.349399566650390625 50.393001556396484375 50.432498931884765625 50.4644012451171875 50.49449920654296875 50.519199371337890625 50.54219818115234375 50.5587005615234375 50.570499420166015625 50.57469940185546875 50.56639862060546875 50.54579925537109375 50.511600494384765625 50.474399566650390625 50.436100006103515625 50.400699615478515625 50.355899810791015625 50.299800872802734375 50.250301361083984375 50.210201263427734375 50.136501312255859375 50.03620147705078125 49.8975982666015625 49.6941986083984375 49.62689971923828125 49.55789947509765625 49.49250030517578125 49.44589996337890625 49.40689849853515625 49.380401611328125 49.358600616455078125 49.34619903564453125 49.340301513671875 49.340900421142578125 49.340900421142578125 49.337398529052734375 49.32559967041015625 49.31259918212890625 49.30670166015625 49.312000274658203125 49.332000732421875 49.356800079345703125 49.38449859619140625 49.411098480224609375 49.44110107421875 49.472400665283203125 49.509601593017578125 49.546100616455078125 49.59149932861328125 49.642299652099609375 49.711299896240234375 49.78620147705078125 49.884601593017578125 49.9925994873046875 50.134700775146484375 50.30339813232421875 50.484401702880859375 50.65489959716796875 50.84709930419921875 51.037601470947265625 51.270000457763671875 51.49639892578125 51.7406005859375 51.94409942626953125 52.145801544189453125 52.31800079345703125 52.4954986572265625 52.65940093994140625 52.844600677490234375 53.01979827880859375 53.226200103759765625 53.42549896240234375 53.652599334716796875 53.86840057373046875 54.111400604248046875 54.33319854736328125 54.568500518798828125 54.77790069580078125 55.003101348876953125 55.20780181884765625 55.4319000244140625 55.6389007568359375 55.851200103759765625 56.029300689697265625 56.219799041748046875 56.396701812744140625 56.600200653076171875 56.792999267578125 56.96469879150390625 57.062000274658203125
51.242298126220703125 51.178600311279296875 51.105998992919921875 51.032901763916015625 50.944400787353515625 50.861301422119140625 50.7657012939453125 50.671398162841796875 50.57759857177734375 50.561100006103515625 49.10559844970703125 47.93019866943359375 48.828998565673828125 49.7277984619140625 50.238498687744140625 50.0756988525390625 49.9889984130859375 49.90290069580078125 49.807399749755859375 49.7212982177734375 49.632801055908203125 49.563201904296875 49.497798919677734375 49.4541015625 49.41519927978515625 49.38629913330078125 49.345001220703125 49.296100616455078125 49.327899932861328125 49.891101837158203125 49.399898529052734375 49.41699981689453125 49.406398773193359375 49.434101104736328125 49.46360015869140625 49.49359893798828125 49.531398773193359375 49.572101593017578125 49.611598968505859375 49.64459991455078125 49.6764984130859375 49.704799652099609375 49.73780059814453125 49.775501251220703125 49.822101593017578125 49.86640167236328125 49.91120147705078125 49.95600128173828125 50.009700775146484375 50.068599700927734375 50.13410186767578125 50.1930999755859375 50.254398345947265625 50.30989837646484375 50.367099761962890625 50.420101165771484375 50.4738006591796875 50.5204010009765625 50.5652008056640625 50.59999847412109375 50.63359832763671875 50.660800933837890625 50.6873016357421875 50.7079010009765625 50.7256011962890625 50.736301422119140625 50.739200592041015625 50.72859954833984375 50.703800201416015625 50.6678009033203125 50.625400543212890625 50.586498260498046875 50.545200347900390625 50.5027008056640625 50.454898834228515625 50.408901214599609375 50.382999420166015625 50.299198150634765625 50.1977996826171875 50.020900726318359375 49.88050079345703125 49.8079986572265625 49.7324981689453125 49.667598724365234375 49.616298675537109375 49.58029937744140625 49.55139923095703125 49.53079986572265625 49.51599884033203125 49.51020050048828125 49.51020050048828125 49.51490020751953125 49.51959991455078125 49.51779937744140625 49.51309967041015625 49.510700225830078125 49.517200469970703125 49.534900665283203125 49.559101104736328125 49.585601806640625 49.613399505615234375 49.642299652099609375 49.674701690673828125 49.711299896240234375 49.75080108642578125 49.79560089111328125 49.8527984619140625 49.92530059814453125 50.016201019287109375 50.121700286865234375 50.2509002685546875 50.403598785400390625 50.601200103759765625 50.79759979248046875 50.989299774169921875 51.18740081787109375 51.395000457763671875 51.62969970703125 51.877399444580078125 52.129299163818359375 52.355701446533203125 52.565700531005859375 52.760898590087890625 52.947200775146484375 53.1295013427734375 53.32469940185546875 53.519901275634765625 53.730998992919921875 53.952800750732421875 54.194599151611328125 54.44229888916015625 54.70240020751953125 54.95890045166015625 55.21250152587890625 55.4524993896484375 55.6884002685546875 55.911998748779296875 56.137798309326171875 56.356601715087890625 56.558300018310546875 56.729400634765625 56.885601043701171875 57.035999298095703125 57.201198577880859375 57.37039947509765625 57.518398284912109375 57.59690093994140625
51.4114990234375 51.34429931640625 51.279998779296875 51.20330047607421875 51.124298095703125 51.0281982421875 50.928501129150390625 50.88610076904296875 50.87310028076171875 50.088100433349609375 48.845500946044921875 48.442699432373046875 49.222301483154296875 50.020900726318359375 50.447299957275390625 50.293300628662109375 50.23020172119140625 50.15000152587890625 50.072200775146484375 49.990200042724609375 49.91770172119140625 49.84870147705078125 49.7949981689453125 49.74900054931640625 49.71179962158203125 49.67530059814453125 49.625701904296875 49.580898284912109375 49.6811981201171875 49.94300079345703125 49.66049957275390625 49.656398773193359375 49.656398773193359375 49.679401397705078125 49.70059967041015625 49.72840118408203125 49.757801055908203125 49.79560089111328125 49.828601837158203125 49.861598968505859375 49.8899993896484375 49.919399261474609375 49.950099945068359375 49.9889984130859375 50.03150177001953125 50.079898834228515625 50.124698638916015625 50.174198150634765625 50.2248992919921875 50.2845001220703125 50.338199615478515625 50.3936004638671875 50.442600250244140625 50.4933013916015625 50.5410003662109375 50.592899322509765625 50.64189910888671875 50.69139862060546875 50.732700347900390625 50.769901275634765625 50.80049896240234375 50.82939910888671875 50.853000640869140625 50.8748016357421875 50.89080047607421875 50.90200042724609375 50.902599334716796875 50.888401031494140625 50.86309814453125 50.82289886474609375 50.78170013427734375 50.737400054931640625 50.69609832763671875 50.65129852294921875 50.610599517822265625 50.56169891357421875 50.552799224853515625 50.4597015380859375 50.360599517822265625 50.1847991943359375 50.0597991943359375 49.9824981689453125 49.907100677490234375 49.839801788330078125 49.78910064697265625 49.74900054931640625 49.7212982177734375 49.69950103759765625 49.685298919677734375 49.6764984130859375 49.674701690673828125 49.6811981201171875 49.690601348876953125 49.698299407958984375 49.70240020751953125 49.707698822021484375 49.717700958251953125 49.737201690673828125 49.760799407958984375 49.788501739501953125 49.8144989013671875 49.84510040283203125 49.879299163818359375 49.9217987060546875 49.9636993408203125 50.015598297119140625 50.07630157470703125 50.1641998291015625 50.263301849365234375 50.39009857177734375 50.5269012451171875 50.70149993896484375 50.906101226806640625 51.122501373291015625 51.317798614501953125 51.534198760986328125 51.74530029296875 51.99720001220703125 52.244800567626953125 52.5178985595703125 52.7509002685546875 52.9832000732421875 53.184299468994140625 53.394298553466796875 53.584201812744140625 53.79830169677734375 54.00469970703125 54.245899200439453125 54.48889923095703125 54.77249908447265625 55.043201446533203125 55.346401214599609375 55.6230010986328125 55.91429901123046875 56.16790008544921875 56.429798126220703125 56.654998779296875 56.890899658203125 57.099700927734375 57.29959869384765625 57.446498870849609375 57.57740020751953125 57.69010162353515625 57.82920074462890625 57.96250152587890625 58.086399078369140625 58.1613006591796875
51.574901580810546875 51.515300750732421875 51.448101043701171875 51.380298614501953125 51.29119873046875 51.1885986328125 51.067699432373046875 51.147899627685546875 50.529201507568359375 49.81330108642578125 48.842498779296875 48.933399200439453125 49.665798187255859375 50.4048004150390625 50.620098114013671875 50.484401702880859375 50.4207000732421875 50.352901458740234375 50.278598785400390625 50.214298248291015625 50.1464996337890625 50.0915985107421875 50.0391998291015625 50.0001983642578125 49.9636993408203125 49.927700042724609375 49.8816986083984375 49.847499847412109375 49.998500823974609375 49.96250152587890625 49.89530181884765625 49.889400482177734375 49.898799896240234375 49.91410064697265625 49.93180084228515625 49.953098297119140625 49.9795989990234375 50.010898590087890625 50.0420989990234375 50.070400238037109375 50.09870147705078125 50.1259002685546875 50.157100677490234375 50.193698883056640625 50.237300872802734375 50.28099822998046875 50.32759857177734375 50.37239837646484375 50.423099517822265625 50.4720001220703125 50.5251007080078125 50.5735015869140625 50.62239837646484375 50.667301177978515625 50.7162017822265625 50.763401031494140625 50.814098358154296875 50.858898162841796875 50.9031982421875 50.937900543212890625 50.969799041748046875 50.99629974365234375 51.021099090576171875 51.04119873046875 51.05770111083984375 51.066501617431640625 51.06529998779296875 51.049999237060546875 51.019298553466796875 50.980998992919921875 50.936199188232421875 50.89369964599609375 50.84889984130859375 50.80879974365234375 50.762798309326171875 50.724498748779296875 50.7144012451171875 50.61299896240234375 50.4868011474609375 50.2938995361328125 50.2397003173828125 50.1595001220703125 50.0839996337890625 50.0214996337890625 49.96720123291015625 49.9264984130859375 49.89530181884765625 49.87400054931640625 49.85810089111328125 49.8480987548828125 49.84400177001953125 49.84870147705078125 49.85990142822265625 49.87400054931640625 49.887599945068359375 49.90000152587890625 49.91590118408203125 49.937099456787109375 49.9636993408203125 49.9907989501953125 50.0178985595703125 50.049800872802734375 50.089900970458984375 50.136501312255859375 50.19010162353515625 50.2472991943359375 50.318698883056640625 50.4131011962890625 50.5316009521484375 50.6678009033203125 50.8235015869140625 50.997501373291015625 51.21450042724609375 51.432201385498046875 51.646198272705078125 51.86920166015625 52.09980010986328125 52.354000091552734375 52.6175994873046875 52.891201019287109375 53.14479827880859375 53.383701324462890625 53.606601715087890625 53.82659912109375 54.038898468017578125 54.268901824951171875 54.51419830322265625 54.784900665283203125 55.0738983154296875 55.384700775146484375 55.700801849365234375 56.027500152587890625 56.342498779296875 56.64910125732421875 56.930500030517578125 57.192901611328125 57.42819976806640625 57.65290069580078125 57.8592987060546875 58.038600921630859375 58.1772003173828125 58.280399322509765625 58.3712005615234375 58.478000640869140625 58.58409881591796875 58.68090057373046875 58.73329925537109375
51.744098663330078125 51.680999755859375 51.620899200439453125 51.542400360107421875 51.4468994140625 51.326000213623046875 51.392101287841796875 50.918498992919921875 50.3199005126953125 49.611598968505859375 48.824901580810546875 49.546100616455078125 50.385898590087890625 50.913799285888671875 50.70619964599609375 50.6631011962890625 50.5959014892578125 50.523899078369140625 50.45909881591796875 50.394199371337890625 50.337001800537109375 50.2826995849609375 50.2397003173828125 50.203098297119140625 50.17240142822265625 50.13880157470703125 50.096401214599609375 50.106998443603515625 50.39479827880859375 50.154201507568359375 50.112300872802734375 50.1092987060546875 50.1222991943359375 50.134700775146484375 50.147701263427734375 50.166500091552734375 50.188999176025390625 50.2183990478515625 50.245601654052734375 50.2733001708984375 50.29869842529296875 50.3264007568359375 50.355899810791015625 50.3936004638671875 50.433101654052734375 50.4785003662109375 50.519199371337890625 50.563999176025390625 50.60829925537109375 50.657199859619140625 50.70439910888671875 50.7545013427734375 50.798801422119140625 50.844799041748046875 50.888401031494140625 50.936798095703125 50.98220062255859375 51.029998779296875 51.070598602294921875 51.107799530029296875 51.137298583984375 51.164398193359375 51.18740081787109375 51.207500457763671875 51.223400115966796875 51.231601715087890625 51.228099822998046875 51.208599090576171875 51.178600311279296875 51.135501861572265625 51.093601226806640625 51.048198699951171875 51.00579833984375 50.96269989013671875 50.92259979248046875 50.90670013427734375 50.86840057373046875 50.76219940185546875 50.6313018798828125 50.4785003662109375 50.420101165771484375 50.3404998779296875 50.272701263427734375 50.2089996337890625 50.158298492431640625 50.114101409912109375 50.08100128173828125 50.0569000244140625 50.0402984619140625 50.0290985107421875 50.0225982666015625 50.02500152587890625 50.0355987548828125 50.05390167236328125 50.072200775146484375 50.091098785400390625 50.1110992431640625 50.136501312255859375 50.163600921630859375 50.193698883056640625 50.220798492431640625 50.256198883056640625 50.3003997802734375 50.3600006103515625 50.4207000732421875 50.4897003173828125 50.564601898193359375 50.67259979248046875 50.796398162841796875 50.950901031494140625 51.106601715087890625 51.293598175048828125 51.506500244140625 51.738800048828125 51.957000732421875 52.20240020751953125 52.43650054931640625 52.709598541259765625 52.971401214599609375 53.261600494384765625 53.518100738525390625 53.781200408935546875 54.01290130615234375 54.264801025390625 54.50299835205078125 54.78260040283203125 55.057399749755859375 55.381198883056640625 55.69609832763671875 56.054698944091796875 56.388500213623046875 56.752899169921875 57.076099395751953125 57.409900665283203125 57.690700531005859375 57.967800140380859375 58.19609832763671875 58.4225006103515625 58.610698699951171875 58.782901763916015625 58.906101226806640625 59.000499725341796875 59.070098876953125 59.15380096435546875 59.231098175048828125 59.306598663330078125 59.361400604248046875
51.90869903564453125 51.852100372314453125 51.78070068359375 51.694000244140625 51.590801239013671875 51.649799346923828125 51.199798583984375 50.65599822998046875 50.07450103759765625 49.48600006103515625 49.53900146484375 50.055698394775390625 50.91970062255859375 50.85720062255859375 50.807598114013671875 50.782299041748046875 50.715000152587890625 50.643100738525390625 50.5811004638671875 50.51979827880859375 50.47029876708984375 50.42369842529296875 50.389499664306640625 50.3628997802734375 50.337001800537109375 50.311000823974609375 50.266201019287109375 50.288600921630859375 50.660198211669921875 50.352901458740234375 50.301601409912109375 50.3134002685546875 50.328098297119140625 50.338199615478515625 50.3516998291015625 50.367099761962890625 50.39009857177734375 50.416599273681640625 50.4430999755859375 50.46849822998046875 50.494998931884765625 50.52159881591796875 50.552799224853515625 50.588199615478515625 50.63069915771484375 50.671398162841796875 50.713298797607421875 50.75279998779296875 50.796398162841796875 50.840099334716796875 50.888401031494140625 50.933200836181640625 50.979198455810546875 51.02050018310546875 51.064701080322265625 51.107799530029296875 51.154399871826171875 51.198001861572265625 51.241100311279296875 51.275299072265625 51.306499481201171875 51.33190155029296875 51.355499267578125 51.373798370361328125 51.38970184326171875 51.395599365234375 51.38970184326171875 51.369098663330078125 51.333698272705078125 51.293598175048828125 51.248798370361328125 51.20690155029296875 51.1614990234375 51.124298095703125 51.081298828125 51.072399139404296875 51.022899627685546875 50.92729949951171875 50.87960052490234375 50.6537017822265625 50.604099273681640625 50.534000396728515625 50.467899322509765625 50.4113006591796875 50.360599517822265625 50.316898345947265625 50.2798004150390625 50.2537994384765625 50.234401702880859375 50.2220001220703125 50.214298248291015625 50.214298248291015625 50.223201751708984375 50.24140167236328125 50.2621002197265625 50.282100677490234375 50.3050994873046875 50.33229827880859375 50.363498687744140625 50.3954010009765625 50.42549896240234375 50.462001800537109375 50.512699127197265625 50.578800201416015625 50.655498504638671875 50.730899810791015625 50.816501617431640625 50.923198699951171875 51.058300018310546875 51.21340179443359375 51.386199951171875 51.571300506591796875 51.798999786376953125 52.03189849853515625 52.26779937744140625 52.51670074462890625 52.769100189208984375 53.041599273681640625 53.3188018798828125 53.607799530029296875 53.886699676513671875 54.16159820556640625 54.43399810791015625 54.72299957275390625 55.02140045166015625 55.339298248291015625 55.6678009033203125 56.02050018310546875 56.378398895263671875 56.751201629638671875 57.114498138427734375 57.47949981689453125 57.8238983154296875 58.1576995849609375 58.4597015380859375 58.734500885009765625 58.9739990234375 59.1875 59.372100830078125 59.52719879150390625 59.64749908447265625 59.733600616455078125 59.797298431396484375 59.86100006103515625 59.92169952392578125 59.983001708984375 60.01779937744140625
52.07849884033203125 52.015399932861328125 51.94110107421875 51.853298187255859375 51.892200469970703125 51.704601287841796875 50.97570037841796875 50.4290008544921875 49.833301544189453125 49.9730987548828125 50.480899810791015625 50.69139862060546875 51.13320159912109375 51.138500213623046875 51.14910125732421875 51.06710052490234375 50.98870086669921875 50.907901763916015625 50.82830047607421875 50.75749969482421875 50.6071014404296875 50.52339935302734375 50.4850006103515625 50.4608001708984375 50.44139862060546875 50.40129852294921875 50.373600006103515625 50.4561004638671875 51.030498504638671875 50.5157012939453125 50.44609832763671875 50.48149871826171875 50.5092010498046875 50.52809906005859375 50.545200347900390625 50.562900543212890625 50.583499908447265625 50.6118011474609375 50.636600494384765625 50.663700103759765625 50.68849945068359375 50.71739959716796875 50.747501373291015625 50.785800933837890625 50.82469940185546875 50.86660003662109375 50.9037017822265625 50.942699432373046875 50.980998992919921875 51.02519989013671875 51.06829833984375 51.114898681640625 51.156200408935546875 51.19860076904296875 51.23809814453125 51.28179931640625 51.323699951171875 51.369098663330078125 51.409198760986328125 51.445098876953125 51.4739990234375 51.500598907470703125 51.521800994873046875 51.540699005126953125 51.554798126220703125 51.560100555419921875 51.551300048828125 51.526500701904296875 51.492298126220703125 51.448101043701171875 51.406200408935546875 51.361400604248046875 51.31890106201171875 51.2781982421875 51.239299774169921875 51.24520111083984375 51.182098388671875 51.079498291015625 51.062999725341796875 50.845401763916015625 50.7946014404296875 50.73040008544921875 50.67369842529296875 50.61949920654296875 50.5735015869140625 50.527500152587890625 50.49089813232421875 50.460201263427734375 50.4402008056640625 50.42549896240234375 50.4160003662109375 50.4141998291015625 50.4207000732421875 50.4384002685546875 50.456699371337890625 50.476200103759765625 50.496799468994140625 50.525699615478515625 50.558101654052734375 50.5959014892578125 50.6277008056640625 50.666698455810546875 50.717998504638671875 50.79579925537109375 50.879001617431640625 50.970401763916015625 51.056499481201171875 51.170299530029296875 51.301799774169921875 51.471698760986328125 51.643901824951171875 51.8468017578125 52.075000762939453125 52.3238983154296875 52.56150054931640625 52.828701019287109375 53.0782012939453125 53.365398406982421875 53.63790130615234375 53.94570159912109375 54.233501434326171875 54.559101104736328125 54.87400054931640625 55.233699798583984375 55.5764007568359375 55.9597015380859375 56.317699432373046875 56.71340179443359375 57.077301025390625 57.47299957275390625 57.829799652099609375 58.213199615478515625 58.5558013916015625 58.91500091552734375 59.21929931640625 59.51300048828125 59.74539947509765625 59.96179962158203125 60.1316986083984375 60.28440093994140625 60.39530181884765625 60.4832000732421875 60.543300628662109375 60.5998992919921875 60.647098541259765625 60.69609832763671875 60.7332000732421875
52.24069976806640625 52.163501739501953125 52.08209991455078125 52.10630035400390625 52.006000518798828125 51.70819854736328125 51.460498809814453125 50.5811004638671875 50.815898895263671875 51.30419921875 51.68579864501953125 51.802501678466796875 51.754199981689453125 51.669200897216796875 51.590801239013671875 51.513599395751953125 51.435699462890625 51.366100311279296875 51.324798583984375 51.30120086669921875 51.279998779296875 51.25579833984375 51.140201568603515625 50.9037017822265625 50.7386016845703125 50.69029998779296875 50.896701812744140625 51.03530120849609375 51.252899169921875 50.896701812744140625 50.586498260498046875 50.59529876708984375 50.628299713134765625 50.6584014892578125 50.6873016357421875 50.715000152587890625 50.73979949951171875 50.782299041748046875 50.81349945068359375 50.84420013427734375 50.873699188232421875 50.906101226806640625 50.944400787353515625 50.98040008544921875 51.021701812744140625 51.059398651123046875 51.097198486328125 51.13140106201171875 51.169101715087890625 51.208099365234375 51.25170135498046875 51.293598175048828125 51.33660125732421875 51.374401092529296875 51.414501190185546875 51.453399658203125 51.49639892578125 51.537700653076171875 51.579601287841796875 51.613201141357421875 51.643299102783203125 51.667499542236328125 51.689300537109375 51.707000732421875 51.721099853515625 51.723499298095703125 51.711700439453125 51.6864013671875 51.646800994873046875 51.60559844970703125 51.560699462890625 51.51940155029296875 51.476398468017578125 51.438098907470703125 51.409198760986328125 51.436298370361328125 51.339000701904296875 51.245800018310546875 51.20690155029296875 51.037601470947265625 50.992198944091796875 50.935001373291015625 50.88249969482421875 50.8347015380859375 50.78820037841796875 50.745098114013671875 50.705600738525390625 50.67549896240234375 50.65129852294921875 50.63539886474609375 50.623600006103515625 50.61949920654296875 50.62419891357421875 50.6389007568359375 50.654300689697265625 50.6696014404296875 50.687900543212890625 50.7144012451171875 50.75099945068359375 50.79109954833984375 50.82939910888671875 50.868900299072265625 50.923801422119140625 51.002201080322265625 51.0989990234375 51.19570159912109375 51.29650115966796875 51.408599853515625 51.547199249267578125 51.711700439453125 51.899799346923828125 52.10150146484375 52.34690093994140625 52.59400177001953125 52.849300384521484375 53.11589813232421875 53.3813018798828125 53.663799285888671875 53.949798583984375 54.262401580810546875 54.597400665283203125 54.9712982177734375 55.3628997802734375 55.775699615478515625 56.18849945068359375 56.607898712158203125 57.00949859619140625 57.4093017578125 57.793300628662109375 58.181301116943359375 58.55699920654296875 58.93920135498046875 59.30780029296875 59.671600341796875 60.001300811767578125 60.2920989990234375 60.533901214599609375 60.736698150634765625 60.90599822998046875 61.046398162841796875 61.1584014892578125 61.243900299072265625 61.30879974365234375 61.360698699951171875 61.406101226806640625 61.450901031494140625 61.4656982421875
52.35340118408203125 52.266101837158203125 52.188201904296875 52.291400909423828125 52.018398284912109375 51.853298187255859375 52.17350006103515625 52.228900909423828125 52.105701446533203125 51.89929962158203125 51.675098419189453125 51.639801025390625 51.523601531982421875 51.472900390625 51.412700653076171875 51.36080169677734375 51.30950164794921875 51.245800018310546875 51.179698944091796875 51.11370086669921875 51.074199676513671875 51.08769989013671875 51.101299285888671875 51.127899169921875 51.203899383544921875 51.230499267578125 51.25640106201171875 51.27590179443359375 51.234600067138671875 51.266998291015625 51.17440032958984375 51.034698486328125 50.948001861572265625 50.935001373291015625 50.9438018798828125 50.958599090576171875 50.991001129150390625 50.92729949951171875 50.93090057373046875 50.9656982421875 51.00640106201171875 51.04940032958984375 51.08950042724609375 51.13610076904296875 51.186199188232421875 51.232799530029296875 51.270000457763671875 51.312999725341796875 51.34960174560546875 51.393798828125 51.43280029296875 51.475200653076171875 51.51409912109375 51.5531005859375 51.589000701904296875 51.62860107421875 51.666900634765625 51.709400177001953125 51.747100830078125 51.782501220703125 51.81079864501953125 51.836101531982421875 51.856201171875 51.87329864501953125 51.885101318359375 51.88629913330078125 51.872699737548828125 51.842601776123046875 51.804901123046875 51.760700225830078125 51.720001220703125 51.678699493408203125 51.641498565673828125 51.6072998046875 51.599700927734375 51.589000701904296875 51.50820159912109375 51.426898956298828125 51.364898681640625 51.239299774169921875 51.194499969482421875 51.14260101318359375 51.096599578857421875 51.048801422119140625 51.006999969482421875 50.962100982666015625 50.92440032958984375 50.88899993896484375 50.864200592041015625 50.845401763916015625 50.831798553466796875 50.825298309326171875 50.82830047607421875 50.83950042724609375 50.85070037841796875 50.86190032958984375 50.875400543212890625 50.90200042724609375 50.93849945068359375 50.98509979248046875 51.025798797607421875 51.070598602294921875 51.124298095703125 51.208099365234375 51.305400848388671875 51.418598175048828125 51.523601531982421875 51.646800994873046875 51.779499053955078125 51.95349884033203125 52.135700225830078125 52.35449981689453125 52.595798492431640625 52.85520172119140625 53.105899810791015625 53.389598846435546875 53.6531982421875 53.949798583984375 54.237598419189453125 54.59439849853515625 54.97010040283203125 55.424198150634765625 55.86769866943359375 56.362499237060546875 56.809600830078125 57.27610015869140625 57.68180084228515625 58.1082000732421875 58.48979949951171875 58.904998779296875 59.283000946044921875 59.694599151611328125 60.064998626708984375 60.4571990966796875 60.785099029541015625 61.09239959716796875 61.323001861572265625 61.52410125732421875 61.679798126220703125 61.819499969482421875 61.926300048828125 62.015899658203125 62.079601287841796875 62.133899688720703125 62.176898956298828125 62.216999053955078125 62.233001708984375
52.626399993896484375 52.6074981689453125 52.688899993896484375 52.691898345947265625 52.54740142822265625 52.325099945068359375 52.028400421142578125 51.676300048828125 51.52239990234375 51.579601287841796875 51.570201873779296875 51.550701141357421875 51.527698516845703125 51.510601043701171875 51.498199462890625 51.47460174560546875 51.43450164794921875 51.37969970703125 51.33190155029296875 51.285900115966796875 51.25170135498046875 51.208099365234375 51.15670013427734375 51.1260986328125 51.106601715087890625 51.079498291015625 51.060001373291015625 51.120800018310546875 51.186798095703125 51.24639892578125 51.328399658203125 51.37850189208984375 51.419200897216796875 51.45989990234375 51.5 51.560100555419921875 51.572498321533203125 51.46810150146484375 51.393199920654296875 51.330699920654296875 51.312999725341796875 51.3218994140625 51.351398468017578125 51.37969970703125 51.426300048828125 51.374401092529296875 51.388500213623046875 51.430400848388671875 51.479900360107421875 51.527099609375 51.574901580810546875 51.622100830078125 51.662799835205078125 51.70989990234375 51.751800537109375 51.791301727294921875 51.831401824951171875 51.874500274658203125 51.91809844970703125 51.95059967041015625 51.98059844970703125 52.00360107421875 52.023700714111328125 52.039600372314453125 52.050800323486328125 52.049098968505859375 52.03189849853515625 52.00189971923828125 51.960601806640625 51.92169952392578125 51.88159942626953125 51.84619903564453125 51.8114013671875 51.77130126953125 51.785400390625 51.74829864501953125 51.67929840087890625 51.625 51.531200408935546875 51.454601287841796875 51.402099609375 51.356700897216796875 51.311298370361328125 51.268798828125 51.225200653076171875 51.183300018310546875 51.141399383544921875 51.105998992919921875 51.077098846435546875 51.056499481201171875 51.040599822998046875 51.032299041748046875 51.032299041748046875 51.038799285888671875 51.0458984375 51.05300140380859375 51.062999725341796875 51.087200164794921875 51.125499725341796875 51.172100067138671875 51.220401763916015625 51.268199920654296875 51.32720184326171875 51.407398223876953125 51.512401580810546875 51.626800537109375 51.747100830078125 51.870899200439453125 52.012500762939453125 52.178798675537109375 52.372798919677734375 52.5839996337890625 52.837001800537109375 53.09059906005859375 53.34889984130859375 53.627201080322265625 53.904998779296875 54.20169830322265625 54.526599884033203125 54.9264984130859375 55.3787994384765625 55.88899993896484375 56.41210174560546875 56.94229888916015625 57.4376983642578125 57.91120147705078125 58.353000640869140625 58.785800933837890625 59.204601287841796875 59.631000518798828125 60.047298431396484375 60.464900970458984375 60.8647003173828125 61.255100250244140625 61.60070037841796875 61.89739990234375 62.12979888916015625 62.31259918212890625 62.465301513671875 62.59510040283203125 62.702999114990234375 62.789699554443359375 62.855701446533203125 62.90940093994140625 62.954799652099609375 62.98310089111328125 62.9636993408203125
53.059299468994140625 52.899501800537109375 52.66770172119140625 51.70050048828125 50.387699127197265625 50.313999176025390625 50.2313995361328125 51.067699432373046875 51.550098419189453125 51.599700927734375 51.50469970703125 51.61090087890625 51.592601776123046875 51.58489990234375 51.585498809814453125 51.568401336669921875 51.53070068359375 51.484699249267578125 51.439800262451171875 51.39739990234375 51.370800018310546875 51.337799072265625 51.311298370361328125 51.298900604248046875 51.29650115966796875 51.284099578857421875 51.282398223876953125 51.297698974609375 51.322498321533203125 51.328399658203125 51.337799072265625 51.34780120849609375 51.35900115966796875 51.3760986328125 51.390899658203125 51.458099365234375 51.54830169677734375 51.658000946044921875 51.7677001953125 51.829700469970703125 51.89279937744140625 51.955898284912109375 52.020198822021484375 52.040798187255859375 51.983600616455078125 51.914600372314453125 51.840301513671875 51.762401580810546875 51.762401580810546875 51.773601531982421875 51.810199737548828125 51.8385009765625 51.778900146484375 51.816699981689453125 51.859699249267578125 51.904598236083984375 51.95349884033203125 52.00479888916015625 52.050800323486328125 52.0968017578125 52.129299163818359375 52.158199310302734375 52.18289947509765625 52.203601837158203125 52.214801788330078125 52.210601806640625 52.19300079345703125 52.159900665283203125 52.124500274658203125 52.088001251220703125 52.055500030517578125 52.02130126953125 51.97769927978515625 51.927600860595703125 51.957000732421875 51.91519927978515625 51.854400634765625 51.823200225830078125 51.743000030517578125 51.658599853515625 51.61679840087890625 51.5718994140625 51.53070068359375 51.48699951171875 51.44570159912109375 51.40090179443359375 51.36080169677734375 51.321300506591796875 51.29180145263671875 51.266998291015625 51.24990081787109375 51.23870086669921875 51.23580169677734375 51.237499237060546875 51.239299774169921875 51.242900848388671875 51.24990081787109375 51.271800994873046875 51.30770111083984375 51.3583984375 51.408000946044921875 51.464000701904296875 51.524200439453125 51.609699249267578125 51.709400177001953125 51.834400177001953125 51.9541015625 52.088001251220703125 52.225399017333984375 52.40110015869140625 52.58750152587890625 52.8115997314453125 53.0558013916015625 53.31349945068359375 53.561798095703125 53.848400115966796875 54.120899200439453125 54.446399688720703125 54.80500030517578125 55.282100677490234375 55.785701751708984375 56.384899139404296875 56.939899444580078125 57.52140045166015625 58.023899078369140625 58.54109954833984375 58.99639892578125 59.479999542236328125 59.916400909423828125 60.39170074462890625 60.82109832763671875 61.276401519775390625 61.677398681640625 62.0885009765625 62.418701171875 62.71829986572265625 62.9329986572265625 63.1110992431640625 63.249698638916015625 63.378299713134765625 63.477901458740234375 63.56639862060546875 63.630100250244140625 63.686100006103515625 63.729801177978515625 63.730899810791015625 63.717998504638671875
52.897098541259765625 52.224201202392578125 51.207500457763671875 50.505100250244140625 50.44609832763671875 50.3777008056640625 50.55699920654296875 50.98809814453125 51.601398468017578125 51.649799346923828125 51.699298858642578125 51.664501190185546875 51.649799346923828125 51.666900634765625 51.676898956298828125 51.660999298095703125 51.617900848388671875 51.573101043701171875 51.527698516845703125 51.498798370361328125 51.466400146484375 51.4375 51.415699005126953125 51.40090179443359375 51.40090179443359375 51.408599853515625 51.423900604248046875 51.44570159912109375 51.464599609375 51.489398956298828125 51.5177001953125 51.54830169677734375 51.594898223876953125 51.62030029296875 51.64739990234375 51.66809844970703125 51.68280029296875 51.70880126953125 51.72650146484375 51.71939849853515625 51.737701416015625 51.760101318359375 51.86679840087890625 51.977100372314453125 52.082698822021484375 52.193500518798828125 52.257801055908203125 52.320301055908203125 52.381099700927734375 52.441799163818359375 52.47660064697265625 52.497898101806640625 52.38700103759765625 52.279598236083984375 52.174098968505859375 52.178798675537109375 52.19879913330078125 52.225399017333984375 52.25659942626953125 52.209499359130859375 52.2218017578125 52.2613983154296875 52.29380035400390625 52.317401885986328125 52.334499359130859375 52.33570098876953125 52.3238983154296875 52.307399749755859375 52.283199310302734375 52.25659942626953125 52.227199554443359375 52.185901641845703125 52.122798919677734375 52.0614013671875 52.155200958251953125 52.083301544189453125 52.03189849853515625 52.023101806640625 51.9093017578125 51.869800567626953125 51.83029937744140625 51.789600372314453125 51.747699737548828125 51.706401824951171875 51.663299560546875 51.62149810791015625 51.578399658203125 51.54010009765625 51.505901336669921875 51.479900360107421875 51.459300994873046875 51.446300506591796875 51.439800262451171875 51.435699462890625 51.43280029296875 51.432201385498046875 51.4375 51.45690155029296875 51.492298126220703125 51.54010009765625 51.59429931640625 51.652099609375 51.721698760986328125 51.805500030517578125 51.91049957275390625 52.030200958251953125 52.157001495361328125 52.286098480224609375 52.43180084228515625 52.600498199462890625 52.798000335693359375 53.0157012939453125 53.2704010009765625 53.516998291015625 53.770000457763671875 54.044200897216796875 54.32669830322265625 54.677600860595703125 55.10340118408203125 55.63359832763671875 56.22280120849609375 56.86090087890625 57.469501495361328125 58.057498931884765625 58.60649871826171875 59.141998291015625 59.653400421142578125 60.163501739501953125 60.657100677490234375 61.154300689697265625 61.63140106201171875 62.095001220703125 62.523700714111328125 62.92240142822265625 63.256801605224609375 63.53279876708984375 63.745700836181640625 63.907901763916015625 64.0435028076171875 64.16259765625 64.26110076904296875 64.34369659423828125 64.40799713134765625 64.46109771728515625 64.50589752197265625 64.5093994140625 64.48639678955078125
53.13359832763671875 52.120998382568359375 50.62129974365234375 50.57469940185546875 50.51689910888671875 50.54579925537109375 51.052398681640625 51.431598663330078125 51.79779815673828125 51.822601318359375 51.778900146484375 51.752399444580078125 51.76599884033203125 51.789600372314453125 51.798999786376953125 51.78070068359375 51.742401123046875 51.69580078125 51.657501220703125 51.625 51.593799591064453125 51.561298370361328125 51.534198760986328125 51.521198272705078125 51.51409912109375 51.513599395751953125 51.520000457763671875 51.534198760986328125 51.560100555419921875 51.591400146484375 51.63449859619140625 51.675701141357421875 51.71469879150390625 51.760101318359375 51.795501708984375 51.83029937744140625 51.858600616455078125 51.904598236083984375 51.948200225830078125 51.95819854736328125 51.9989013671875 52.040798187255859375 52.066699981689453125 52.098598480224609375 52.11859893798828125 52.13629913330078125 52.148700714111328125 52.158199310302734375 52.2100982666015625 52.314998626708984375 52.366298675537109375 52.416500091552734375 52.5037994384765625 52.578098297119140625 52.602199554443359375 52.61930084228515625 52.63700103759765625 52.651798248291015625 52.671199798583984375 52.6417999267578125 52.6045989990234375 52.5774993896484375 52.55390167236328125 52.56150054931640625 52.562099456787109375 52.559200286865234375 52.432399749755859375 52.4058990478515625 52.392299652099609375 52.36750030517578125 52.337398529052734375 52.279598236083984375 52.24430084228515625 52.35160064697265625 52.31330108642578125 52.268398284912109375 52.217700958251953125 52.195301055908203125 52.11859893798828125 52.082698822021484375 52.045501708984375 52.00299835205078125 51.964099884033203125 51.921100616455078125 51.88159942626953125 51.83789825439453125 51.79779815673828125 51.755901336669921875 51.721698760986328125 51.691699981689453125 51.669200897216796875 51.653301239013671875 51.642101287841796875 51.632099151611328125 51.624401092529296875 51.62030029296875 51.624401092529296875 51.643901824951171875 51.67459869384765625 51.722301483154296875 51.774799346923828125 51.839099884033203125 51.909900665283203125 52.00189971923828125 52.10150146484375 52.225399017333984375 52.344501495361328125 52.48020172119140625 52.618198394775390625 52.794498443603515625 52.9832000732421875 53.215000152587890625 53.463901519775390625 53.718601226806640625 53.959300994873046875 54.238201141357421875 54.526599884033203125 54.932399749755859375 55.402400970458984375 56.01869964599609375 56.643798828125 57.342098236083984375 57.954898834228515625 58.5912017822265625 59.154399871826171875 59.75360107421875 60.2902984619140625 60.865299224853515625 61.383098602294921875 61.936298370361328125 62.42639923095703125 62.9282989501953125 63.34999847412109375 63.759799957275390625 64.07360076904296875 64.347198486328125 64.542999267578125 64.7052001953125 64.83260345458984375 64.95169830322265625 65.04309844970703125 65.1239013671875 65.18289947509765625 65.2353973388671875 65.276702880859375 65.2837982177734375 65.27429962158203125
52.819301605224609375 51.4468994140625 50.690799713134765625 50.650699615478515625 50.594699859619140625 50.97389984130859375 51.57550048828125 51.961200714111328125 51.965301513671875 51.91339874267578125 51.876300811767578125 51.87860107421875 51.89630126953125 51.91519927978515625 51.923999786376953125 51.907501220703125 51.86920166015625 51.832000732421875 51.79840087890625 51.774200439453125 51.744098663330078125 51.715801239013671875 51.689899444580078125 51.675098419189453125 51.666900634765625 51.663898468017578125 51.666301727294921875 51.67929840087890625 51.702899932861328125 51.731800079345703125 51.76599884033203125 51.797199249267578125 51.83789825439453125 51.8739013671875 51.912200927734375 51.941699981689453125 51.97650146484375 52.02069854736328125 52.059101104736328125 52.105098724365234375 52.159900665283203125 52.19409942626953125 52.23310089111328125 52.27429962158203125 52.317401885986328125 52.35449981689453125 52.40470123291015625 52.4217987060546875 52.45240020751953125 52.49140167236328125 52.5261993408203125 52.537998199462890625 52.541500091552734375 52.5196990966796875 52.5467987060546875 52.5738983154296875 52.5915985107421875 52.6128997802734375 52.67890167236328125 52.745601654052734375 52.766201019287109375 52.7910003662109375 52.807498931884765625 52.8292999267578125 52.851100921630859375 52.876499176025390625 52.8694000244140625 52.8115997314453125 52.7714996337890625 52.7332000732421875 52.6670989990234375 52.60520172119140625 52.661800384521484375 52.59400177001953125 52.504901885986328125 52.45130157470703125 52.41590118408203125 52.3686981201171875 52.30680084228515625 52.293201446533203125 52.257198333740234375 52.217700958251953125 52.176998138427734375 52.13690185546875 52.095600128173828125 52.055500030517578125 52.01309967041015625 51.97299957275390625 51.935199737548828125 51.905101776123046875 51.879199981689453125 51.86029815673828125 51.843799591064453125 51.82849884033203125 51.814300537109375 51.80780029296875 51.8114013671875 51.829700469970703125 51.859699249267578125 51.901599884033203125 51.9541015625 52.017200469970703125 52.09510040283203125 52.18650054931640625 52.293201446533203125 52.40940093994140625 52.5337982177734375 52.6605987548828125 52.80390167236328125 52.9720001220703125 53.170200347900390625 53.39189910888671875 53.6531982421875 53.901500701904296875 54.149799346923828125 54.42639923095703125 54.757198333740234375 55.2053985595703125 55.7498016357421875 56.40560150146484375 57.09149932861328125 57.786800384521484375 58.44319915771484375 59.090099334716796875 59.711200714111328125 60.336299896240234375 60.9402008056640625 61.54290008544921875 62.118499755859375 62.685298919677734375 63.2173004150390625 63.71739959716796875 64.159698486328125 64.5531005859375 64.8744964599609375 65.1309967041015625 65.3314971923828125 65.49019622802734375 65.62349700927734375 65.73850250244140625 65.83159637451171875 65.90540313720703125 65.96140289306640625 66.00859832763671875 66.04869842529296875 66.08049774169921875 66.06870269775390625
51.957599639892578125 50.795200347900390625 50.76039886474609375 50.7256011962890625 50.881900787353515625 51.439800262451171875 52.00009918212890625 52.111598968505859375 52.06620025634765625 52.021900177001953125 52.010101318359375 52.013698577880859375 52.0260009765625 52.043201446533203125 52.04959869384765625 52.03189849853515625 52.00189971923828125 51.967098236083984375 51.94229888916015625 51.92169952392578125 51.89749908447265625 51.87039947509765625 51.84909820556640625 51.837299346923828125 51.831401824951171875 51.83029937744140625 51.835601806640625 51.85150146484375 51.87509918212890625 51.904598236083984375 51.934600830078125 51.967700958251953125 52.001300811767578125 52.036701202392578125 52.067901611328125 52.098598480224609375 52.129299163818359375 52.164600372314453125 52.198299407958984375 52.237201690673828125 52.273700714111328125 52.30970001220703125 52.348598480224609375 52.38990020751953125 52.435298919677734375 52.48020172119140625 52.52790069580078125 52.572200775146484375 52.61930084228515625 52.66120147705078125 52.686000823974609375 52.719600677490234375 52.756198883056640625 52.755001068115234375 52.791599273681640625 52.828098297119140625 52.851100921630859375 52.872898101806640625 52.895900726318359375 52.9188995361328125 52.94139862060546875 52.9477996826171875 52.950801849365234375 52.94609832763671875 52.947200775146484375 52.960201263427734375 52.96379852294921875 52.96379852294921875 52.963199615478515625 52.982601165771484375 52.9944000244140625 52.9915008544921875 52.99089813232421875 52.739101409912109375 52.6782989501953125 52.645900726318359375 52.6110992431640625 52.5886993408203125 52.4795989990234375 52.4777984619140625 52.464801788330078125 52.42890167236328125 52.390499114990234375 52.3480987548828125 52.309101104736328125 52.266101837158203125 52.22660064697265625 52.184101104736328125 52.148101806640625 52.115100860595703125 52.089199066162109375 52.066699981689453125 52.045501708984375 52.02249908447265625 52.00479888916015625 51.994800567626953125 51.997699737548828125 52.01599884033203125 52.041400909423828125 52.079700469970703125 52.126300811767578125 52.19300079345703125 52.268398284912109375 52.36750030517578125 52.4712982177734375 52.5933990478515625 52.711299896240234375 52.84400177001953125 52.979099273681640625 53.154300689697265625 53.341800689697265625 53.57469940185546875 53.82540130615234375 54.083099365234375 54.32669830322265625 54.637500762939453125 55.007900238037109375 55.533901214599609375 56.114200592041015625 56.8385009765625 57.520198822021484375 58.2509002685546875 58.902599334716796875 59.603199005126953125 60.237201690673828125 60.9261016845703125 61.55059814453125 62.217601776123046875 62.804401397705078125 63.4160003662109375 63.941501617431640625 64.46810150146484375 64.89980316162109375 65.307403564453125 65.61930084228515625 65.8899993896484375 66.089996337890625 66.2657012939453125 66.402496337890625 66.526397705078125 66.6172027587890625 66.689697265625 66.73809814453125 66.78170013427734375 66.81710052490234375 66.851898193359375 66.84429931640625
51.14260101318359375 50.679599761962890625 50.75389862060546875 50.820598602294921875 51.114299774169921875 51.682201385498046875 52.249599456787109375 52.21540069580078125 52.18000030517578125 52.161701202392578125 52.15110015869140625 52.149898529052734375 52.15869903564453125 52.171100616455078125 52.17530059814453125 52.16049957275390625 52.13159942626953125 52.105701446533203125 52.086200714111328125 52.071498870849609375 52.049098968505859375 52.026599884033203125 52.008899688720703125 52.00009918212890625 51.99720001220703125 51.997699737548828125 52.005401611328125 52.023101806640625 52.050201416015625 52.07849884033203125 52.113300323486328125 52.145801544189453125 52.18470001220703125 52.218898773193359375 52.256099700927734375 52.286098480224609375 52.317401885986328125 52.349201202392578125 52.3816986083984375 52.412899017333984375 52.447101593017578125 52.47840118408203125 52.512599945068359375 52.54560089111328125 52.58280181884765625 52.618801116943359375 52.6576995849609375 52.692501068115234375 52.729000091552734375 52.75910186767578125 52.7975006103515625 52.829898834228515625 52.8647003173828125 52.9001007080078125 52.932498931884765625 52.9654998779296875 52.994998931884765625 53.0279998779296875 53.059299468994140625 53.091098785400390625 53.11299896240234375 53.138301849365234375 53.15599822998046875 53.176700592041015625 53.18019866943359375 53.184299468994140625 53.177799224853515625 53.15599822998046875 53.139499664306640625 53.1295013427734375 53.09059906005859375 53.016300201416015625 52.9878997802734375 52.8852996826171875 52.831699371337890625 52.802799224853515625 52.839900970458984375 52.86589813232421875 52.8386993408203125 52.659999847412109375 52.6576995849609375 52.635898590087890625 52.597499847412109375 52.5561981201171875 52.51380157470703125 52.4730987548828125 52.432399749755859375 52.39350128173828125 52.35630035400390625 52.325099945068359375 52.297901153564453125 52.2725982666015625 52.245998382568359375 52.219501495361328125 52.194698333740234375 52.18289947509765625 52.18470001220703125 52.19879913330078125 52.220699310302734375 52.252498626708984375 52.29669952392578125 52.358699798583984375 52.43830108642578125 52.533199310302734375 52.644100189208984375 52.762699127197265625 52.889499664306640625 53.017398834228515625 53.15959930419921875 53.325298309326171875 53.521701812744140625 53.742198944091796875 54.00350189208984375 54.251800537109375 54.515399932861328125 54.864498138427734375 55.311000823974609375 55.886600494384765625 56.540599822998046875 57.269001007080078125 57.981998443603515625 58.699100494384765625 59.38970184326171875 60.092098236083984375 60.7769012451171875 61.47750091552734375 62.157501220703125 62.834499359130859375 63.4691009521484375 64.07540130615234375 64.62619781494140625 65.13990020751953125 65.59100341796875 65.99030303955078125 66.32759857177734375 66.6060028076171875 66.833099365234375 67.02410125732421875 67.18219757080078125 67.309600830078125 67.4080963134765625 67.474700927734375 67.519500732421875 67.55670166015625 67.5885009765625 67.6150970458984375 67.6322021484375
50.420101165771484375 50.293300628662109375 50.36769866943359375 50.76689910888671875 51.29830169677734375 51.882099151611328125 52.4152984619140625 52.342700958251953125 52.32089996337890625 52.3061981201171875 52.294399261474609375 52.28910064697265625 52.292598724365234375 52.3014984130859375 52.30210113525390625 52.287899017333984375 52.267299652099609375 52.244800567626953125 52.231899261474609375 52.22010040283203125 52.201801300048828125 52.182300567626953125 52.16880035400390625 52.162899017333984375 52.16230010986328125 52.16519927978515625 52.174701690673828125 52.19589996337890625 52.222400665283203125 52.256099700927734375 52.288501739501953125 52.326198577880859375 52.363399505615234375 52.403499603271484375 52.4394989013671875 52.4748992919921875 52.50550079345703125 52.5420989990234375 52.5738983154296875 52.608699798583984375 52.640598297119140625 52.674800872802734375 52.706600189208984375 52.7397003173828125 52.7714996337890625 52.8050994873046875 52.8358001708984375 52.865299224853515625 52.8899993896484375 52.9188995361328125 52.9430999755859375 52.970798492431640625 52.995601654052734375 53.01509857177734375 53.03929901123046875 53.0670013427734375 53.099399566650390625 53.130100250244140625 53.163700103759765625 53.194400787353515625 53.229198455810546875 53.2563018798828125 53.27629852294921875 53.2946014404296875 53.314098358154296875 53.33119964599609375 53.32939910888671875 53.34420013427734375 53.33409881591796875 53.33769989013671875 53.315799713134765625 53.259799957275390625 53.147800445556640625 53.0428009033203125 52.9915008544921875 53.05519866943359375 53.086399078369140625 53.1277008056640625 53.1259002685546875 52.9253997802734375 52.84400177001953125 52.830501556396484375 52.7985992431640625 52.754398345947265625 52.7154998779296875 52.6735992431640625 52.63700103759765625 52.5980987548828125 52.5644989013671875 52.5326995849609375 52.506099700927734375 52.477199554443359375 52.448299407958984375 52.41410064697265625 52.38700103759765625 52.37110137939453125 52.36930084228515625 52.37870025634765625 52.39459991455078125 52.4217987060546875 52.4600982666015625 52.52140045166015625 52.5951995849609375 52.6941986083984375 52.8003997802734375 52.9272003173828125 53.051601409912109375 53.189601898193359375 53.327098846435546875 53.500400543212890625 53.686798095703125 53.917999267578125 54.168598175048828125 54.42929840087890625 54.715301513671875 55.1363983154296875 55.632999420166015625 56.29470062255859375 56.96939849853515625 57.73310089111328125 58.42549896240234375 59.176799774169921875 59.85739898681640625 60.601100921630859375 61.282299041748046875 62.029499053955078125 62.70709991455078125 63.4290008544921875 64.05590057373046875 64.69219970703125 65.228302001953125 65.7621002197265625 66.20379638671875 66.6331024169921875 66.98169708251953125 67.30370330810546875 67.552001953125 67.7772979736328125 67.94770050048828125 68.09279632568359375 68.1923980712890625 68.26200103759765625 68.30100250244140625 68.33280181884765625 68.35880279541015625 68.38880157470703125 68.38410186767578125
48.76760101318359375 49.61930084228515625 50.3694000244140625 50.807598114013671875 51.462200164794921875 52.04850006103515625 52.5579986572265625 52.481899261474609375 52.47190093994140625 52.454799652099609375 52.43830108642578125 52.43000030517578125 52.42890167236328125 52.4329986572265625 52.4311981201171875 52.419399261474609375 52.402301788330078125 52.38700103759765625 52.37870025634765625 52.36930084228515625 52.35340118408203125 52.339801788330078125 52.329799652099609375 52.326198577880859375 52.327999114990234375 52.332698822021484375 52.345699310302734375 52.366901397705078125 52.39820098876953125 52.429401397705078125 52.467800140380859375 52.503200531005859375 52.546199798583984375 52.584499359130859375 52.626399993896484375 52.6605987548828125 52.69660186767578125 52.732601165771484375 52.768001556396484375 52.801601409912109375 52.837001800537109375 52.868801116943359375 52.9029998779296875 52.93489837646484375 52.9691009521484375 53.0009002685546875 53.033901214599609375 53.0605010986328125 53.085300445556640625 53.107700347900390625 53.130100250244140625 53.149501800537109375 53.1678009033203125 53.184299468994140625 53.2032012939453125 53.22679901123046875 53.2545013427734375 53.279300689697265625 53.3058013916015625 53.3329010009765625 53.355899810791015625 53.37310028076171875 53.386600494384765625 53.399600982666015625 53.413700103759765625 53.42440032958984375 53.436199188232421875 53.445598602294921875 53.452098846435546875 53.44969940185546875 53.44319915771484375 53.450298309326171875 53.39369964599609375 53.2050018310546875 53.19789886474609375 53.235599517822265625 53.3282012939453125 53.357700347900390625 53.383701324462890625 53.25749969482421875 53.0269012451171875 53.02159881591796875 52.99269866943359375 52.95259857177734375 52.912998199462890625 52.8759002685546875 52.8386993408203125 52.80390167236328125 52.770900726318359375 52.74140167236328125 52.713100433349609375 52.6829986572265625 52.64820098876953125 52.612300872802734375 52.57920074462890625 52.561000823974609375 52.55390167236328125 52.5561981201171875 52.56510162353515625 52.58570098876953125 52.621700286865234375 52.677700042724609375 52.7519989013671875 52.84400177001953125 52.951999664306640625 53.074001312255859375 53.2079010009765625 53.34529876708984375 53.493999481201171875 53.661998748779296875 53.857799530029296875 54.076000213623046875 54.334400177001953125 54.606800079345703125 54.951198577880859375 55.427799224853515625 56.00749969482421875 56.703998565673828125 57.426998138427734375 58.170101165771484375 58.891998291015625 59.62799835205078125 60.344600677490234375 61.0782012939453125 61.7958984375 62.533100128173828125 63.2462005615234375 63.952098846435546875 64.605499267578125 65.22480010986328125 65.7845001220703125 66.30699920654296875 66.78289794921875 67.225799560546875 67.6215972900390625 67.97010040283203125 68.2631988525390625 68.50859832763671875 68.70909881591796875 68.8618011474609375 68.97499847412109375 69.0464019775390625 69.0865020751953125 69.11309814453125 69.13610076904296875 69.16139984130859375 69.178497314453125
48.422100067138671875 48.71160125732421875 49.964900970458984375 50.841800689697265625 51.590801239013671875 52.190601348876953125 52.701900482177734375 52.6334991455078125 52.619899749755859375 52.6016998291015625 52.5850982666015625 52.572200775146484375 52.566898345947265625 52.5662994384765625 52.562099456787109375 52.552700042724609375 52.54090118408203125 52.52970123291015625 52.52500152587890625 52.517299652099609375 52.5066986083984375 52.49610137939453125 52.48960113525390625 52.48960113525390625 52.4936981201171875 52.501399993896484375 52.5149993896484375 52.5402984619140625 52.56980133056640625 52.6063995361328125 52.6428985595703125 52.68360137939453125 52.7248992919921875 52.7686004638671875 52.809200286865234375 52.8488006591796875 52.88410186767578125 52.924198150634765625 52.959598541259765625 52.99739837646484375 53.03099822998046875 53.065799713134765625 53.097599029541015625 53.131801605224609375 53.16429901123046875 53.1985015869140625 53.22859954833984375 53.256900787353515625 53.279300689697265625 53.30049896240234375 53.31999969482421875 53.3394012451171875 53.35540008544921875 53.370700836181640625 53.387798309326171875 53.41139984130859375 53.43560028076171875 53.4597015380859375 53.481601715087890625 53.503398895263671875 53.521099090576171875 53.535800933837890625 53.54290008544921875 53.547000885009765625 53.549999237060546875 53.557098388671875 53.558200836181640625 53.55879974365234375 53.5458984375 53.530498504638671875 53.514598846435546875 53.509899139404296875 53.521099090576171875 53.38249969482421875 53.495700836181640625 53.51110076904296875 53.467998504638671875 53.560001373291015625 53.574199676513671875 53.504001617431640625 53.28639984130859375 53.20909881591796875 53.186100006103515625 53.148899078369140625 53.1136016845703125 53.076999664306640625 53.0446014404296875 53.01039886474609375 52.97969818115234375 52.949001312255859375 52.9207000732421875 52.885898590087890625 52.8498992919921875 52.808101654052734375 52.7733001708984375 52.749698638916015625 52.736698150634765625 52.7313995361328125 52.7332000732421875 52.747898101806640625 52.7798004150390625 52.836399078369140625 52.903598785400390625 52.993801116943359375 53.091701507568359375 53.2162017822265625 53.344699859619140625 53.493999481201171875 53.641998291015625 53.8218994140625 54.0093994140625 54.236499786376953125 54.4906005859375 54.808498382568359375 55.201900482177734375 55.76509857177734375 56.38430023193359375 57.14279937744140625 57.849300384521484375 58.620700836181640625 59.322498321533203125 60.090999603271484375 60.7910003662109375 61.55889892578125 62.26129913330078125 63.0290985107421875 63.72029876708984375 64.44750213623046875 65.07440185546875 65.71430206298828125 66.25980377197265625 66.81890106201171875 67.3054962158203125 67.80139923095703125 68.2183990478515625 68.62000274658203125 68.9344024658203125 69.2180023193359375 69.43270111083984375 69.61080169677734375 69.73470306396484375 69.82250213623046875 69.86789703369140625 69.89679718017578125 69.92040252685546875 69.95400238037109375 69.9552001953125
48.6708984375 48.5010986328125 49.103199005126953125 50.40129852294921875 51.2958984375 52.190601348876953125 52.852901458740234375 52.778598785400390625 52.7667999267578125 52.7519989013671875 52.731998443603515625 52.71720123291015625 52.7071990966796875 52.7024993896484375 52.69660186767578125 52.6894989013671875 52.680698394775390625 52.6753997802734375 52.6717987060546875 52.6670989990234375 52.65940093994140625 52.6540985107421875 52.6511993408203125 52.653598785400390625 52.6605987548828125 52.669498443603515625 52.687198638916015625 52.711299896240234375 52.7444000244140625 52.779201507568359375 52.820499420166015625 52.859401702880859375 52.90599822998046875 52.948398590087890625 52.994998931884765625 53.033901214599609375 53.0746002197265625 53.114101409912109375 53.1537017822265625 53.1902008056640625 53.228000640869140625 53.2610015869140625 53.29579925537109375 53.32759857177734375 53.3618011474609375 53.39369964599609375 53.4261016845703125 53.452098846435546875 53.474498748779296875 53.49340057373046875 53.511600494384765625 53.5287017822265625 53.544101715087890625 53.557598114013671875 53.57360076904296875 53.59420013427734375 53.618999481201171875 53.639598846435546875 53.659698486328125 53.677398681640625 53.69390106201171875 53.705699920654296875 53.712200164794921875 53.71450042724609375 53.71630096435546875 53.717498779296875 53.716899871826171875 53.708599090576171875 53.69029998779296875 53.66320037841796875 53.63249969482421875 53.61009979248046875 53.570598602294921875 53.566501617431640625 53.683300018310546875 53.750499725341796875 53.67559814453125 53.74520111083984375 53.76409912109375 53.777599334716796875 53.48329925537109375 53.404300689697265625 53.383098602294921875 53.35179901123046875 53.31819915771484375 53.285198211669921875 53.252201080322265625 53.22029876708984375 53.187900543212890625 53.15779876708984375 53.1259002685546875 53.090000152587890625 53.04869842529296875 53.005001068115234375 52.9654998779296875 52.939601898193359375 52.918399810791015625 52.9066009521484375 52.899501800537109375 52.9095001220703125 52.940799713134765625 52.99269866943359375 53.0605010986328125 53.14009857177734375 53.2350006103515625 53.34709930419921875 53.478000640869140625 53.622501373291015625 53.78530120849609375 53.96340179443359375 54.164501190185546875 54.380901336669921875 54.66230010986328125 55.023799896240234375 55.493801116943359375 56.10720062255859375 56.798900604248046875 57.55030059814453125 58.284000396728515625 59.03350067138671875 59.76309967041015625 60.51200103759765625 61.2433013916015625 61.994098663330078125 62.726001739501953125 63.4709014892578125 64.1797027587890625 64.87030029296875 65.5084991455078125 66.12419891357421875 66.69860076904296875 67.265899658203125 67.8025970458984375 68.31980133056640625 68.78690338134765625 69.2068023681640625 69.56420135498046875 69.867401123046875 70.11620330810546875 70.3155975341796875 70.4694976806640625 70.57559967041015625 70.64409637451171875 70.68419647216796875 70.71720123291015625 70.74900054931640625 70.7725982666015625
48.9281005859375 48.416698455810546875 48.755298614501953125 50.259700775146484375 51.1614990234375 52.021900177001953125 52.878200531005859375 52.9225006103515625 52.918399810791015625 52.899501800537109375 52.880001068115234375 52.862300872802734375 52.8498992919921875 52.8423004150390625 52.8358001708984375 52.829898834228515625 52.8246002197265625 52.82160186767578125 52.820499420166015625 52.816898345947265625 52.813999176025390625 52.812198638916015625 52.812801361083984375 52.8180999755859375 52.825801849365234375 52.8386993408203125 52.855800628662109375 52.882999420166015625 52.9141998291015625 52.953098297119140625 52.992099761962890625 53.036899566650390625 53.081699371337890625 53.130100250244140625 53.1761016845703125 53.221500396728515625 53.2610015869140625 53.3058013916015625 53.344699859619140625 53.38539886474609375 53.422000885009765625 53.458599090576171875 53.491001129150390625 53.52519989013671875 53.557598114013671875 53.59130096435546875 53.621898651123046875 53.64849853515625 53.668498992919921875 53.686199188232421875 53.702701568603515625 53.71920013427734375 53.73220062255859375 53.744598388671875 53.758800506591796875 53.779399871826171875 53.79940032958984375 53.819499969482421875 53.835399627685546875 53.851299285888671875 53.864898681640625 53.8760986328125 53.880199432373046875 53.88140106201171875 53.881999969482421875 53.88320159912109375 53.881999969482421875 53.873798370361328125 53.857799530029296875 53.82720184326171875 53.789398193359375 53.749298095703125 53.760501861572265625 53.74639892578125 53.782901763916015625 53.8489990234375 53.83010101318359375 53.867298126220703125 53.965801239013671875 53.973400115966796875 53.736301422119140625 53.60540008544921875 53.59239959716796875 53.559398651123046875 53.5281982421875 53.493999481201171875 53.462100982666015625 53.427898406982421875 53.3972015380859375 53.364200592041015625 53.33119964599609375 53.290500640869140625 53.2480010986328125 53.1985015869140625 53.159000396728515625 53.1259002685546875 53.099399566650390625 53.0782012939453125 53.065799713134765625 53.07109832763671875 53.099399566650390625 53.1537017822265625 53.21559906005859375 53.293399810791015625 53.3748016357421875 53.482700347900390625 53.600101470947265625 53.752300262451171875 53.913299560546875 54.109699249267578125 54.305500030517578125 54.541400909423828125 54.850399017333984375 55.2790985107421875 55.78929901123046875 56.47750091552734375 57.17639923095703125 57.959598541259765625 58.67079925537109375 59.447498321533203125 60.15470123291015625 60.9308013916015625 61.64080047607421875 62.422298431396484375 63.13410186767578125 63.90200042724609375 64.573699951171875 65.2707977294921875 65.87349700927734375 66.5052032470703125 67.0695037841796875 67.68109893798828125 68.2277984619140625 68.7928009033203125 69.26519775390625 69.725799560546875 70.10030364990234375 70.4499969482421875 70.7248992919921875 70.97080230712890625 71.1548004150390625 71.3022003173828125 71.39839935302734375 71.46849822998046875 71.51869964599609375 71.56349945068359375 71.5670013427734375
49.13919830322265625 48.45980072021484375 48.946300506591796875 50.35649871826171875 51.156200408935546875 52.024898529052734375 52.898899078369140625 53.06169891357421875 53.05989837646484375 53.04869842529296875 53.0269012451171875 53.01039886474609375 52.9962005615234375 52.9868011474609375 52.97969818115234375 52.9756011962890625 52.972599029541015625 52.971401214599609375 52.971401214599609375 52.9701995849609375 52.9701995849609375 52.971401214599609375 52.9756011962890625 52.982601165771484375 52.99269866943359375 53.0055999755859375 53.025699615478515625 53.05049896240234375 53.0847015380859375 53.120601654052734375 53.1649017333984375 53.20729827880859375 53.2592010498046875 53.3058013916015625 53.359500885009765625 53.404300689697265625 53.450901031494140625 53.495098114013671875 53.53820037841796875 53.57830047607421875 53.618999481201171875 53.654399871826171875 53.689800262451171875 53.721599578857421875 53.755199432373046875 53.78710174560546875 53.819499969482421875 53.843700408935546875 53.86370086669921875 53.879100799560546875 53.89440155029296875 53.908000946044921875 53.9208984375 53.931598663330078125 53.944499969482421875 53.962200164794921875 53.981700897216796875 53.997600555419921875 54.012298583984375 54.024700164794921875 54.03710174560546875 54.045398712158203125 54.04830169677734375 54.04830169677734375 54.048900604248046875 54.048900604248046875 54.047100067138671875 54.040699005126953125 54.02410125732421875 53.99700164794921875 53.95989990234375 53.93270111083984375 53.964000701904296875 53.90380096435546875 53.940399169921875 53.98400115966796875 54.011798858642578125 54.035900115966796875 54.168598175048828125 54.17340087890625 53.99050140380859375 53.8135986328125 53.80059814453125 53.77230072021484375 53.73809814453125 53.70510101318359375 53.67150115966796875 53.638401031494140625 53.60540008544921875 53.572399139404296875 53.534099578857421875 53.492198944091796875 53.44319915771484375 53.394298553466796875 53.34889984130859375 53.3123016357421875 53.277500152587890625 53.25099945068359375 53.2303009033203125 53.2321014404296875 53.259799957275390625 53.311100006103515625 53.376598358154296875 53.44680023193359375 53.524600982666015625 53.617198944091796875 53.73040008544921875 53.873798370361328125 54.050098419189453125 54.245899200439453125 54.462299346923828125 54.715301513671875 55.0886993408203125 55.557498931884765625 56.127201080322265625 56.8218994140625 57.546199798583984375 58.302799224853515625 59.043598175048828125 59.79840087890625 60.532100677490234375 61.285198211669921875 62.023601531982421875 62.783199310302734375 63.5233001708984375 64.25820159912109375 64.94110107421875 65.5980987548828125 66.20850372314453125 66.81710052490234375 67.41100311279296875 68.02020263671875 68.60590362548828125 69.1638031005859375 69.66510009765625 70.126800537109375 70.5413970947265625 70.91950225830078125 71.25330352783203125 71.54399871826171875 71.789398193359375 71.9833984375 72.12909698486328125 72.23819732666015625 72.3218994140625 72.373199462890625 72.40039825439453125
49.001201629638671875 48.754100799560546875 49.65290069580078125 50.64369964599609375 51.42800140380859375 52.213001251220703125 52.9980010986328125 53.211498260498046875 53.211498260498046875 53.195499420166015625 53.1761016845703125 53.1584014892578125 53.14479827880859375 53.1360015869140625 53.130100250244140625 53.126499176025390625 53.125400543212890625 53.125400543212890625 53.126499176025390625 53.127101898193359375 53.128299713134765625 53.1324005126953125 53.1389007568359375 53.1472015380859375 53.15779876708984375 53.173099517822265625 53.19139862060546875 53.217899322509765625 53.248600006103515625 53.2881011962890625 53.330600738525390625 53.379001617431640625 53.42910003662109375 53.483898162841796875 53.536998748779296875 53.58950042724609375 53.635501861572265625 53.686199188232421875 53.72869873046875 53.772899627685546875 53.812999725341796875 53.851898193359375 53.88610076904296875 53.9197998046875 53.95159912109375 53.984600067138671875 54.01409912109375 54.04010009765625 54.05780029296875 54.072498321533203125 54.08489990234375 54.097900390625 54.108501434326171875 54.118499755859375 54.12969970703125 54.146800994873046875 54.16210174560546875 54.176300048828125 54.1875 54.198101043701171875 54.207599639892578125 54.214000701904296875 54.215801239013671875 54.215198516845703125 54.214599609375 54.2135009765625 54.212299346923828125 54.205799102783203125 54.192798614501953125 54.166301727294921875 54.135601043701171875 54.148601531982421875 54.13970184326171875 54.098499298095703125 54.12149810791015625 54.147998809814453125 54.19100189208984375 54.229999542236328125 54.372699737548828125 54.375598907470703125 54.252399444580078125 54.080799102783203125 54.0177001953125 53.985198974609375 53.952800750732421875 53.91680145263671875 53.8843994140625 53.8489990234375 53.81600189208984375 53.777599334716796875 53.73809814453125 53.689800262451171875 53.64080047607421875 53.58599853515625 53.54000091552734375 53.495098114013671875 53.455600738525390625 53.4196014404296875 53.394901275634765625 53.39369964599609375 53.418498992919921875 53.471500396728515625 53.534099578857421875 53.60540008544921875 53.673198699951171875 53.75579833984375 53.855499267578125 54.006999969482421875 54.180400848388671875 54.397998809814453125 54.62860107421875 54.94480133056640625 55.362300872802734375 55.89369964599609375 56.471599578857421875 57.183498382568359375 57.8610992431640625 58.6295013427734375 59.339000701904296875 60.11930084228515625 60.8292999267578125 61.60900115966796875 62.32379913330078125 63.112300872802734375 63.82649993896484375 64.57720184326171875 65.22299957275390625 65.8871002197265625 66.46559906005859375 67.09369659423828125 67.6710968017578125 68.31040191650390625 68.87830352783203125 69.456298828125 69.94580078125 70.437103271484375 70.8563995361328125 71.29399871826171875 71.6696014404296875 72.03530120849609375 72.33550262451171875 72.60790252685546875 72.809600830078125 72.9801025390625 73.103302001953125 73.16590118408203125 73.1475982666015625
48.800098419189453125 48.800098419189453125 50.0373992919921875 50.811199188232421875 51.585498809814453125 52.3592987060546875 53.13359832763671875 53.389598846435546875 53.357700347900390625 53.344699859619140625 53.32469940185546875 53.30989837646484375 53.29759979248046875 53.2899017333984375 53.2834014892578125 53.2816009521484375 53.2816009521484375 53.2834014892578125 53.28459930419921875 53.285800933837890625 53.2899017333984375 53.2946014404296875 53.302898406982421875 53.31169891357421875 53.324100494384765625 53.33769989013671875 53.35829925537109375 53.3813018798828125 53.41429901123046875 53.450901031494140625 53.497501373291015625 53.54470062255859375 53.601898193359375 53.655498504638671875 53.716899871826171875 53.768798828125 53.823001861572265625 53.873199462890625 53.9208984375 53.964599609375 54.00820159912109375 54.047100067138671875 54.084300994873046875 54.117298126220703125 54.15039825439453125 54.180999755859375 54.211700439453125 54.234699249267578125 54.25299835205078125 54.265399932861328125 54.277099609375 54.287200927734375 54.297199249267578125 54.305500030517578125 54.31610107421875 54.329601287841796875 54.34320068359375 54.353801727294921875 54.363300323486328125 54.370899200439453125 54.37860107421875 54.382701873779296875 54.38330078125 54.381500244140625 54.380401611328125 54.379199981689453125 54.376800537109375 54.372100830078125 54.36029815673828125 54.33789825439453125 54.318401336669921875 54.341999053955078125 54.304901123046875 54.2947998046875 54.313098907470703125 54.336700439453125 54.37979888916015625 54.423999786376953125 54.579700469970703125 54.577301025390625 54.487701416015625 54.29779815673828125 54.231700897216796875 54.203998565673828125 54.167999267578125 54.133800506591796875 54.098499298095703125 54.063701629638671875 54.02590179443359375 53.98580169677734375 53.940399169921875 53.890899658203125 53.835399627685546875 53.781200408935546875 53.728099822998046875 53.67910003662109375 53.630199432373046875 53.590099334716796875 53.55879974365234375 53.555301666259765625 53.579498291015625 53.628398895263671875 53.69029998779296875 53.752300262451171875 53.810100555419921875 53.880199432373046875 53.984600067138671875 54.133800506591796875 54.32550048828125 54.551998138427734375 54.83679962158203125 55.19010162353515625 55.683101654052734375 56.237499237060546875 56.846099853515625 57.51200103759765625 58.1837005615234375 58.90200042724609375 59.61679840087890625 60.36280059814453125 61.092998504638671875 61.845500946044921875 62.585601806640625 63.34999847412109375 64.0854034423828125 64.80190277099609375 65.4600982666015625 66.089996337890625 66.68270111083984375 67.28949737548828125 67.8845977783203125 68.50029754638671875 69.0823974609375 69.64029693603515625 70.1510009765625 70.63339996337890625 71.08989715576171875 71.55519866943359375 71.9940032958984375 72.40740203857421875 72.7843017578125 73.122802734375 73.41179656982421875 73.6417999267578125 73.80930328369140625 73.83350372314453125 73.80519866943359375
49.183399200439453125 48.800098419189453125 50.0373992919921875 50.811199188232421875 51.582599639892578125 52.34980010986328125 53.134799957275390625 53.565898895263671875 53.5063018798828125 53.492801666259765625 53.476299285888671875 53.46269989013671875 53.452098846435546875 53.444400787353515625 53.439701080322265625 53.437900543212890625 53.439098358154296875 53.441501617431640625 53.4438018798828125 53.44680023193359375 53.450901031494140625 53.458599090576171875 53.466800689697265625 53.47679901123046875 53.4886016845703125 53.504001617431640625 53.521701812744140625 53.547000885009765625 53.575901031494140625 53.616001129150390625 53.66030120849609375 53.713298797607421875 53.768798828125 53.830699920654296875 53.890300750732421875 53.951000213623046875 54.004100799560546875 54.061901092529296875 54.109100341796875 54.15679931640625 54.20050048828125 54.242900848388671875 54.280101776123046875 54.31610107421875 54.347301483154296875 54.379199981689453125 54.407501220703125 54.43170166015625 54.44699859619140625 54.45880126953125 54.467601776123046875 54.477100372314453125 54.48529815673828125 54.493000030517578125 54.501300811767578125 54.51309967041015625 54.523101806640625 54.531299591064453125 54.537799835205078125 54.543701171875 54.54840087890625 54.550800323486328125 54.550201416015625 54.54840087890625 54.54669952392578125 54.544300079345703125 54.541900634765625 54.537799835205078125 54.528400421142578125 54.52069854736328125 54.5791015625 54.513599395751953125 54.48059844970703125 54.492401123046875 54.51129913330078125 54.53900146484375 54.56439971923828125 54.608600616455078125 54.792598724365234375 54.799098968505859375 54.744800567626953125 54.523101806640625 54.449901580810546875 54.42279815673828125 54.388599395751953125 54.35150146484375 54.316699981689453125 54.277099609375 54.237598419189453125 54.191600799560546875 54.144500732421875 54.08840179443359375 54.033599853515625 53.97280120849609375 53.917999267578125 53.859600067138671875 53.80770111083984375 53.75820159912109375 53.7239990234375 53.71630096435546875 53.734600067138671875 53.77590179443359375 53.82360076904296875 53.874298095703125 53.92330169677734375 54.000598907470703125 54.106098175048828125 54.27239990234375 54.467601776123046875 54.737701416015625 55.04850006103515625 55.4701995849609375 55.991001129150390625 56.589599609375 57.172901153564453125 57.8350982666015625 58.4579010009765625 59.169200897216796875 59.836200714111328125 60.588100433349609375 61.282901763916015625 62.0531005859375 62.763698577880859375 63.5493011474609375 64.2510986328125 64.98059844970703125 65.6027984619140625 66.2415008544921875 66.80889892578125 67.4304962158203125 67.9983978271484375 68.62529754638671875 69.1802978515625 69.75530242919921875 70.2494964599609375 70.75789642333984375 71.2191009521484375 71.72509765625 72.17919921875 72.65689849853515625 73.0720977783203125 73.494903564453125 73.8394012451171875 74.13719940185546875 74.31529998779296875 74.34600067138671875 74.15129852294921875
